ply
format ascii 1.0
element vertex 1415
property float x
property float y
property float z
property uchar red
property uchar green
property uchar blue
end_header
10.8343 -23.1216 -4.5765 255 35 0
47.2343 -35.7216 -8.5764 255 136 0
3.4343 4.4784 -0.9765 255 53 0
17.6343 -18.7216 -4.1764 169 0 0
10.2343 -30.9216 -2.1764 174 255 80
-15.1657 -52.7216 -5.3765 255 67 0
53.0343 -30.7216 -8.3765 152 0 0
12.6343 -2.7216 0.6236 255 250 0
43.2343 -14.7216 -3.3765 255 157 0
-0.9657 -25.9216 -2.5764 255 4 0
12.8343 -5.1216 -1.1764 255 231 0
8.0343 -23.5216 -4.3765 255 174 0
29.4343 -28.5216 -6.5765 127 0 0
27.8343 -27.5216 -5.9764 159 0 0
12.4343 -7.1216 -1.7765 255 77 0
13.0343 -31.9216 -3.9764 255 121 0
9.0343 -22.9216 -4.1764 255 135 0
-5.9657 -12.5216 0.8236 73 255 181
30.0343 -34.5216 -7.1764 206 0 0
6.6343 -19.5216 -3.7765 255 237 0
29.6343 -27.5216 -6.3765 127 0 0
8.0343 2.6784 -2.5764 255 87 0
2.2343 3.0784 -1.9765 255 241 0
-0.5657 -5.5216 1.2235 194 255 60
0.4343 6.6784 1.8236 255 216 0
52.2343 -18.1216 -5.7764 255 0 0
5.8343 -18.3216 -0.5765 44 255 210
6.0343 -40.1216 -5.1764 255 125 0
1.0343 -0.9216 -2.9764 123 255 131
16.8343 -21.3216 -6.7764 255 163 0
-1.5657 -7.9216 -1.7765 255 218 0
27.6343 -20.7216 -2.3765 255 45 0
6.6343 -23.1216 -1.3764 213 255 41
2.2343 7.0784 -0.3765 255 204 0
-10.3657 -20.9216 -2.3765 255 112 0
7.6343 -1.9216 1.0235 255 211 0
6.8343 2.6784 1.2235 172 255 82
3.4343 -9.5216 -2.5764 255 164 0
2.6343 -27.1216 -2.7765 103 255 151
-3.1657 -8.9216 1.0235 133 255 121
7.2343 -24.3216 -1.3764 186 255 68
-11.1657 -14.7216 -1.7765 255 45 0
-7.7657 -25.1216 -1.9765 255 142 0
40.8343 -18.7216 -3.1764 255 193 0
-8.3657 -13.5216 -2.1764 183 0 0
9.2343 -4.3216 0.6236 255 233 0
48.6343 -28.9216 -8.5764 128 0 0
8.6343 1.8784 1.0235 195 255 59
13.2343 -6.5216 -1.7765 255 150 0
-6.7657 0.2784 0.4235 255 70 0
7.8343 -4.3216 -4.1764 244 0 0
9.2343 -17.1216 -3.7765 255 25 0
25.4343 -25.3216 -2.7765 255 213 0
7.4343 -34.3216 -2.3765 231 255 23
-3.3657 -26.9216 -2.9764 255 47 0
19.0343 -20.3216 -2.1764 255 187 0
10.2343 -5.1216 -2.5764 255 11 0
47.6343 -19.3216 -6.1764 127 0 0
41.2343 -15.5216 -4.1764 255 17 0
17.0343 -18.5216 -4.3765 127 0 0
46.8343 -28.1216 -7.1764 255 77 0
8.2343 -5.5216 0.4235 255 167 0
35.4343 -23.3216 -5.5765 154 0 0
16.4343 -9.5216 -0.7764 255 167 0
14.6343 -0.5216 -2.7765 147 0 0
23.6343 -31.7216 -6.5765 161 0 0
11.8343 -9.9216 -3.1764 189 0 0
13.8343 -25.3216 -4.7764 255 38 0
4.6343 -3.5216 -2.1764 255 25 0
7.8343 13.2784 2.8236 189 255 65
11.2343 0.6784 1.2235 168 255 86
56.8343 -20.3216 -5.9764 215 0 0
48.0343 -27.9216 -6.1764 255 150 0
-7.7657 -22.9216 -0.5765 255 186 0
4.2343 -5.9216 0.4235 255 245 0
-2.7657 -10.9216 0.4235 116 255 138
5.8343 8.0784 -0.9765 255 45 0
1.6343 0.4784 -2.7765 249 255 5
0.8343 6.0784 1.4236 255 209 0
11.0343 -14.5216 -0.7764 212 255 42
49.4343 -20.1216 -6.3765 127 0 0
46.0343 -15.3216 -4.1764 255 133 0
14.4343 -29.9216 -2.5764 255 114 0
52.4343 -9.7216 -2.3765 255 60 0
5.0343 0.6784 1.0235 255 241 0
7.8343 5.6784 1.6236 222 255 32
-7.7657 -9.3216 -1.7765 219 0 0
-10.9657 -13.3216 -0.5765 159 255 95
7.8343 -14.5216 -0.7764 130 255 124
10.6343 -25.5216 -4.7764 255 89 0
45.0343 -28.7216 -6.1764 255 8 0
20.6343 -26.9216 -2.3765 255 126 0
26.2343 -26.7216 -5.5765 157 0 0
9.0343 0.6784 1.2235 201 255 53
54.0343 -18.5216 -4.9764 255 77 0
-11.7657 -19.5216 -2.5764 255 59 0
3.8343 -2.3216 1.4236 255 238 0
-1.5657 -0.3216 1.4236 200 255 54
22.0343 -21.5216 -5.3765 133 0 0
35.4343 -30.7216 -8.7765 222 0 0
11.2343 -13.5216 -3.7765 226 0 0
35.2343 -27.9216 -3.5764 178 255 76
31.6343 -24.1216 -3.1764 255 165 0
15.2343 -27.7216 -4.3765 255 30 0
6.8343 -38.5216 -2.9764 242 255 12
16.8343 1.4784 -0.1764 255 188 0
7.0343 -17.5216 -2.1764 235 255 19
-2.5657 -9.3216 -3.1764 255 179 0
4.0343 -1.9216 -1.9765 255 33 0
8.8343 -38.5216 -4.9764 255 97 0
31.0343 -26.5216 -2.9764 151 255 103
3.4343 -8.3216 -2.3765 255 86 0
11.4343 -12.1216 -0.9765 255 144 0
8.4343 1.0784 -1.9765 127 0 0
7.8343 1.0784 0.8236 192 255 62
9.0343 6.6784 -0.7764 255 132 0
10.4343 -7.1216 -1.9765 127 0 0
10.0343 2.0784 -0.3765 255 114 0
51.2343 -34.5216 -5.1764 255 95 0
2.8343 3.2784 0.2235 255 125 0
5.4343 -26.9216 -1.1764 215 255 39
-2.5657 2.4784 0.2235 255 212 0
20.0343 -22.7216 -4.7764 181 0 0
17.4343 -19.3216 -1.9765 255 185 0
33.0343 -22.5216 -4.9764 205 0 0
65.0343 -28.7216 -7.1764 205 0 0
-0.9657 1.0784 1.8236 255 247 0
10.4343 -18.1216 -4.1764 186 0 0
6.4343 -25.1216 -1.1764 255 242 0
-13.1657 -17.7216 -0.9765 255 108 0
-3.3657 2.2784 0.0236 255 125 0
57.0343 -22.7216 -7.3765 236 0 0
13.6343 -31.9216 -2.1764 255 204 0
7.2343 -29.9216 -3.5764 255 208 0
51.4343 -14.9216 -5.9764 127 0 0
0.8343 1.8784 2.0236 229 255 25
32.2343 -24.1216 -5.7764 254 0 0
51.8343 -13.3216 -5.1764 149 0 0
-6.1657 1.6784 0.6236 255 21 0
-10.7657 -15.7216 1.0235 85 255 169
43.6343 -21.1216 -6.3765 170 0 0
-3.9657 -4.5216 1.8236 230 255 24
-7.3657 -13.3216 1.0235 65 255 189
11.0343 5.2784 -1.5764 255 90 0
44.2343 -24.3216 -3.3765 255 239 0
12.4343 -1.5216 0.8236 145 255 109
3.2343 -0.1216 -1.9765 255 31 0
41.2343 -15.3216 -5.1764 148 0 0
10.6343 3.8784 1.0235 237 255 17
4.4343 0.6784 1.0235 255 242 0
54.0343 -28.9216 -6.7764 255 6 0
31.4343 -25.7216 -2.7765 179 255 75
-4.5657 -24.5216 -0.3765 240 255 14
-4.3657 -22.7216 -1.9765 255 105 0
40.6343 -24.7216 -6.3765 255 17 0
23.4343 -26.9216 -2.7765 255 182 0
8.4343 -8.9216 -2.5764 222 0 0
14.8343 -14.5216 -3.1764 127 0 0
13.4343 -31.7216 -3.1764 255 159 0
54.6343 -27.5216 -4.5765 255 138 0
41.2343 -27.3216 -6.1764 255 56 0
21.0343 -14.5216 -2.7765 224 0 0
2.8343 -15.1216 -4.3765 255 225 0
31.6343 -15.9216 -5.1764 204 0 0
12.2343 -23.9216 -5.1764 255 56 0
59.2343 -19.5216 -6.9764 197 0 0
24.4343 -27.9216 -5.5765 255 46 0
28.8343 -20.3216 -4.3765 210 0 0
49.4343 -35.1216 -4.7764 157 255 97
-9.5657 -5.9216 1.6236 154 255 100
54.0343 -19.1216 -7.1764 162 0 0
-2.9657 -25.1216 -1.7765 255 103 0
54.8343 -25.9216 -7.1764 127 0 0
-8.5657 -17.5216 -2.5764 231 0 0
28.2343 -32.7216 -6.7764 254 0 0
6.6343 -16.3216 -3.9764 127 0 0
41.4343 -29.7216 -3.9764 239 255 15
-6.1657 -16.5216 0.6236 65 255 189
20.8343 -25.5216 -5.5765 127 0 0
32.4343 -32.7216 -6.3765 255 19 0
46.4343 -18.5216 -5.5765 127 0 0
7.6343 -22.5216 -1.3764 161 255 93
56.6343 -20.7216 -6.1764 226 0 0
57.4343 -22.3216 -6.5765 255 2 0
18.8343 -30.3216 -4.5765 212 0 0
33.0343 -23.1216 -6.3765 216 0 0
-6.3657 -12.1216 1.0235 61 255 193
-0.7657 -21.9216 -3.1764 254 0 0
37.6343 -14.9216 -4.3765 255 44 0
44.8343 -27.9216 -6.5765 255 7 0
52.0343 -34.1216 -4.9764 255 94 0
1.4343 5.2784 0.6236 238 255 16
52.2343 -16.9216 -5.1764 225 0 0
0.4343 -14.9216 0.0236 43 255 211
45.4343 -19.5216 -6.1764 127 0 0
11.0343 -13.7216 -0.9765 255 154 0
38.6343 -31.5216 -6.1764 255 115 0
2.6343 -7.1216 -6.3765 255 225 0
8.4343 -9.3216 -2.9764 255 29 0
41.4343 -23.5216 -3.3765 255 205 0
10.8343 2.6784 -0.5765 255 104 0
-0.1657 -25.7216 -3.1764 255 85 0
6.0343 -15.3216 -0.1764 96 255 158
7.4343 -4.5216 -2.7765 127 0 0
10.8343 -28.9216 -1.7765 255 238 0
11.2343 -3.9216 0.2235 213 255 41
32.0343 -25.1216 -5.9764 240 0 0
2.0343 2.6784 -2.5764 29 255 225
-3.7657 -23.1216 -3.3765 255 74 0
26.0343 -31.1216 -5.9764 222 0 0
2.6343 -26.5216 -1.1764 112 255 142
-15.1657 -21.5216 -1.3764 255 17 0
58.6343 -26.5216 -7.1764 232 0 0
44.6343 -35.3216 -5.9764 204 255 50
16.2343 -21.9216 -1.5764 255 115 0
52.6343 -25.1216 -4.1764 255 131 0
18.8343 -22.1216 -1.9765 255 163 0
6.0343 -15.1216 -0.1764 99 255 155
37.6343 -25.1216 -6.3765 255 33 0
23.2343 -15.1216 -3.3765 225 0 0
7.6343 -12.3216 -3.1764 212 0 0
-11.1657 -4.3216 1.8236 212 255 42
8.4343 6.8784 2.0236 255 242 0
-3.5657 -16.3216 -2.9764 255 161 0
44.2343 -29.1216 -6.7764 255 105 0
42.8343 -33.7216 -4.1764 138 255 116
54.2343 -21.5216 -6.7764 134 0 0
0.4343 9.0784 1.2235 197 255 57
52.8343 -23.3216 -7.3765 127 0 0
54.4343 -18.7216 -5.3765 255 59 0
26.8343 -26.5216 -3.1764 255 253 0
2.8343 -27.1216 -1.7765 173 255 81
3.8343 -15.9216 -0.1764 56 255 198
9.0343 -36.3216 -2.7765 255 249 0
42.6343 -27.3216 -6.5765 255 82 0
11.6343 -25.1216 -4.9764 255 18 0
-2.9657 -10.3216 0.8236 89 255 165
0.4343 9.2784 1.4236 191 255 63
-5.1657 -17.9216 -3.7765 255 172 0
9.2343 -29.3216 -5.3765 255 168 0
53.8343 -29.7216 -7.9764 198 0 0
53.0343 -31.1216 -8.1765 217 0 0
14.0343 -0.3216 -1.3764 255 43 0
54.2343 -21.1216 -8.5764 127 0 0
0.4343 3.2784 -1.3764 255 140 0
26.6343 -25.3216 -2.5764 182 255 72
9.4343 9.8784 2.2235 255 210 0
-0.9657 1.6784 1.6236 255 253 0
3.0343 -17.9216 -5.1764 255 82 0
41.8343 -33.7216 -7.3765 250 0 0
20.4343 -31.1216 -3.9764 255 90 0
1.2343 -3.1216 1.0235 255 246 0
13.4343 -2.3216 0.6236 185 255 69
-9.7657 -16.9216 -2.7765 255 105 0
-1.9657 2.2784 -1.1764 255 86 0
43.4343 -32.1216 -7.5765 255 24 0
10.6343 -31.5216 -3.5764 255 62 0
28.6343 -31.3216 -3.1764 229 255 25
21.4343 -31.3216 -3.3765 255 121 0
48.8343 -21.1216 -3.7765 255 178 0
38.6343 -16.9216 -4.1764 255 52 0
5.4343 -0.5216 -2.7765 255 7 0
44.0343 -18.3216 -4.9764 254 0 0
4.2343 -21.7216 -3.5764 255 138 0
33.6343 -31.5216 -7.3765 248 0 0
41.8343 -15.9216 -2.9764 255 94 0
25.0343 -33.1216 -5.1764 255 21 0
31.0343 -34.7216 -4.9764 255 108 0
41.0343 -30.3216 -4.1764 205 255 49
6.2343 -8.1216 -2.5764 152 0 0
19.2343 -21.3216 -1.5764 255 222 0
-2.5657 -24.9216 -2.1764 255 56 0
9.6343 -18.3216 -3.9764 178 0 0
-9.3657 -11.7216 1.4236 68 255 186
7.0343 -21.1216 -4.1764 255 86 0
19.0343 -15.7216 -2.1764 255 1 0
8.0343 -18.7216 -3.9764 255 87 0
39.0343 -20.3216 -6.1764 127 0 0
63.0343 -24.3216 -7.1764 255 12 0
14.0343 -1.3216 0.6236 213 255 41
48.6343 -15.1216 -5.3765 255 19 0
12.8343 -30.7216 -2.5764 255 156 0
-8.7657 -14.3216 -2.7765 255 62 0
14.8343 -13.7216 -2.9764 127 0 0
23.4343 -28.9216 -3.3765 255 106 0
41.2343 -26.3216 -5.7764 255 103 0
-0.9657 -5.1216 1.4236 159 255 95
41.0343 -28.3216 -4.1764 214 255 40
28.4343 -20.5216 -5.7764 127 0 0
4.4343 -21.9216 -2.9764 255 210 0
-0.7657 5.4784 1.6236 254 255 0
19.4343 -2.7216 -2.7765 202 0 0
-0.9657 -25.3216 -5.9764 236 0 0
44.0343 -20.5216 -3.1764 255 246 0
-0.3657 -0.9216 -1.3764 255 235 0
37.6343 -23.3216 -3.5764 255 87 0
52.2343 -19.1216 -5.3765 244 0 0
13.2343 -28.7216 -5.1764 255 23 0
3.8343 4.4784 1.6236 187 255 67
-3.9657 -23.1216 -3.1764 255 84 0
51.4343 -33.1216 -8.1765 255 155 0
9.6343 -27.5216 -1.9765 255 128 0
10.2343 -23.7216 -1.5764 247 255 7
13.2343 -25.1216 -1.9765 255 53 0
42.6343 -19.7216 -7.9764 127 0 0
40.4343 -29.7216 -4.3765 193 255 61
9.0343 -17.5216 -1.3764 235 255 19
39.4343 -26.1216 -8.1765 255 107 0
48.0343 -13.9216 -5.3765 255 1 0
29.4343 -21.3216 -5.1764 229 0 0
41.2343 -22.7216 -7.1764 127 0 0
38.8343 -12.1216 -4.9764 255 3 0
6.0343 0.4784 -0.5765 255 57 0
15.6343 -11.7216 -2.7765 127 0 0
34.6343 -29.5216 -7.1764 161 0 0
2.2343 -4.7216 -1.7765 255 158 0
3.2343 -26.7216 -4.3765 255 220 0
-8.1657 -21.9216 -3.3765 255 78 0
11.4343 -1.5216 -1.9765 230 0 0
25.6343 -19.1216 -2.5764 255 139 0
40.2343 -24.9216 -7.1764 255 10 0
-11.9657 -20.1216 -1.9765 216 0 0
-9.7657 -10.7216 -0.5765 255 240 0
42.4343 -21.3216 -3.3765 255 253 0
-2.9657 -23.7216 -0.9765 255 184 0
31.8343 -24.3216 -5.7764 179 0 0
5.6343 4.8784 1.6236 212 255 42
-8.3657 -1.3216 0.2235 255 97 0
22.2343 -17.5216 -4.7764 127 0 0
-6.1657 -21.5216 0.2235 255 239 0
55.8343 -0.7216 -4.1764 163 0 0
14.0343 -4.1216 -0.1764 255 187 0
13.6343 -13.5216 -0.9765 251 0 0
-7.1657 -14.7216 -2.1764 211 0 0
-10.9657 -19.7216 -2.9764 255 37 0
-5.3657 -3.5216 1.6236 255 118 0
-0.1657 -4.7216 1.4236 187 255 67
52.6343 -27.9216 -4.7764 255 101 0
1.6343 -7.5216 0.8236 128 255 126
39.0343 -20.5216 -3.3765 255 241 0
-12.7657 -20.3216 -1.3764 255 58 0
64.0343 -30.5216 -7.7764 255 33 0
2.2343 -11.7216 -2.5764 255 193 0
10.0343 -13.1216 -3.5764 255 43 0
26.8343 -26.7216 -3.1764 255 251 0
51.0343 -22.1216 -5.7764 192 0 0
-8.7657 -21.9216 -0.5765 255 184 0
17.4343 -23.5216 -4.9764 199 0 0
31.4343 -35.1216 -6.1764 255 15 0
48.8343 -16.1216 -4.3765 255 53 0
36.2343 -30.9216 -4.7764 255 237 0
37.0343 -26.3216 -6.3765 255 29 0
11.0343 -9.3216 0.0236 255 204 0
-2.3657 -9.3216 1.0235 123 255 131
49.4343 -37.1216 -7.9764 255 92 0
17.8343 -14.9216 -2.7765 135 0 0
18.0343 -17.7216 -1.3764 255 133 0
1.2343 1.0784 2.0236 194 255 60
53.0343 -39.3216 -8.1765 255 130 0
37.2343 -24.7216 -5.3765 255 90 0
38.2343 -12.7216 -5.1764 255 5 0
27.4343 -17.3216 -4.1764 192 0 0
2.0343 1.6784 -0.9765 255 51 0
11.0343 -31.3216 -5.5765 255 131 0
14.8343 -1.7216 0.0236 247 255 7
-10.7657 -18.5216 -2.9764 255 40 0
31.2343 -22.7216 -2.7765 255 73 0
46.0343 -20.7216 -6.3765 209 0 0
26.4343 -28.5216 -3.3765 255 174 0
20.6343 -19.3216 -5.1764 176 0 0
45.4343 -24.7216 -4.1764 255 219 0
14.2343 -26.5216 -4.9764 255 81 0
-2.5657 -24.7216 -2.3765 255 71 0
47.6343 -20.5216 -3.3765 255 185 0
-2.5657 -12.1216 -2.7765 252 255 2
8.0343 -25.1216 -1.1764 255 218 0
6.4343 -35.9216 -4.3765 255 174 0
2.6343 -27.5216 -4.7764 255 158 0
52.0343 -30.1216 -4.3765 255 166 0
7.0343 6.4784 1.6236 216 255 38
36.2343 -31.1216 -3.9764 171 255 83
9.0343 1.8784 -2.1764 255 5 0
36.2343 -30.5216 -7.1764 197 0 0
20.8343 -30.7216 -6.1764 128 0 0
15.4343 -24.3216 -1.9765 255 25 0
17.2343 -25.5216 -5.3765 222 0 0
45.8343 -22.1216 -3.5764 255 242 0
17.8343 -27.1216 -2.5764 255 84 0
-13.1657 -19.5216 0.2235 255 139 0
38.6343 -32.1216 -4.1764 137 255 117
-0.5657 -6.9216 -1.9765 255 207 0
13.2343 10.4784 1.8236 165 255 89
42.0343 -33.9216 -4.3765 155 255 99
0.6343 -7.3216 -1.9765 255 141 0
2.0343 2.2784 -1.7765 255 132 0
36.8343 -28.9216 -3.7765 177 255 77
17.8343 -21.3216 -1.9765 255 199 0
2.8343 -27.5216 -2.3765 134 255 120
-5.3657 -18.1216 -2.5764 255 188 0
10.6343 -33.5216 -3.5764 255 93 0
12.8343 -21.9216 -1.7765 255 101 0
6.2343 0.0784 -2.1764 127 0 0
3.8343 -13.7216 -0.3765 85 255 169
11.6343 6.8784 1.6236 255 237 0
9.6343 -2.9216 -2.3765 144 0 0
9.2343 6.4784 -1.1764 255 97 0
41.0343 -18.1216 -5.9764 251 0 0
16.4343 -16.9216 -3.9764 155 0 0
6.4343 -5.1216 -2.9764 255 60 0
-5.3657 -7.3216 1.0235 164 255 90
0.6343 -15.3216 0.2235 38 255 216
47.6343 -33.3216 -7.7764 255 132 0
-1.5657 0.0784 -1.5764 255 209 0
2.0343 -7.5216 -2.3765 255 60 0
8.2343 -18.5216 -4.5765 255 126 0
49.0343 -35.1216 -5.1764 202 255 52
4.8343 2.4784 1.8236 146 255 108
43.8343 -22.9216 -6.5765 255 25 0
47.2343 -25.3216 -6.7764 255 7 0
21.8343 -25.7216 -5.1764 155 0 0
62.4343 -29.9216 -5.1764 255 151 0
25.6343 -27.1216 -3.1764 255 194 0
9.6343 -35.9216 -2.9764 220 255 34
5.8343 -2.3216 -2.1764 241 0 0
45.4343 -24.1216 -3.9764 255 154 0
-9.5657 -5.5216 2.0236 155 255 99
50.4343 -18.7216 -6.7764 156 0 0
43.4343 -11.9216 -4.3765 255 1 0
-5.7657 -11.5216 1.0235 53 255 201
52.0343 -24.7216 -3.9764 255 138 0
-15.1657 -52.3216 -5.5765 255 40 0
2.8343 -25.3216 -4.5765 255 249 0
11.8343 -26.7216 -1.5764 255 115 0
29.8343 -33.7216 -6.5765 255 20 0
6.8343 -23.3216 -5.7764 255 138 0
27.6343 -19.7216 -2.3765 255 97 0
19.4343 -19.1216 -1.7765 255 171 0
-5.9657 -15.3216 -2.1764 255 36 0
22.8343 -17.1216 -3.7765 135 0 0
-8.1657 -7.7216 0.4235 255 213 0
22.0343 -31.1216 -4.7764 243 0 0
17.8343 -15.7216 -3.7765 127 0 0
11.4343 -28.1216 -2.3765 255 106 0
46.4343 -35.7216 -5.7764 173 255 81
8.6343 -4.3216 0.2235 255 185 0
18.8343 -15.7216 -2.3765 217 0 0
7.0343 -22.5216 -3.9764 255 161 0
49.0343 -19.7216 -5.7764 196 0 0
19.4343 -27.5216 -2.7765 255 97 0
-3.1657 2.6784 0.2235 255 185 0
-10.1657 -16.7216 -1.7765 255 89 0
42.2343 -14.9216 -3.9764 255 94 0
13.4343 2.0784 -0.3765 255 155 0
3.4343 -22.3216 -0.5765 238 255 16
-0.5657 -6.3216 -2.7765 255 236 0
13.6343 -18.9216 -0.9765 255 162 0
19.0343 -24.5216 -2.1764 255 143 0
-11.1657 -17.9216 0.8236 133 255 121
23.2343 -27.1216 -2.7765 255 175 0
0.2343 2.4784 -1.3764 255 215 0
-10.5657 -15.7216 -2.5764 255 73 0
3.4343 -21.1216 -0.3765 99 255 155
10.0343 -20.9216 -3.9764 255 4 0
5.2343 -8.7216 0.4235 172 255 82
32.0343 -34.9216 -5.9764 255 74 0
-5.9657 -23.5216 0.0236 185 255 69
0.6343 -20.5216 -0.3765 93 255 161
13.2343 -2.1216 0.4235 203 255 51
1.6343 0.0784 -2.3765 255 214 0
33.8343 -27.1216 -6.3765 243 0 0
-8.5657 -16.5216 -2.5764 255 82 0
49.6343 -37.1216 -7.7764 255 73 0
5.4343 -20.7216 -3.5764 255 207 0
8.0343 -30.5216 -5.3765 255 22 0
-7.5657 -0.1216 0.0236 255 102 0
29.4343 -21.3216 -2.3765 255 108 0
47.4343 -17.1216 -5.7764 127 0 0
1.2343 -2.3216 -3.3765 200 255 54
26.8343 -30.9216 -6.1764 249 0 0
16.2343 -14.1216 -2.5764 142 0 0
25.2343 -22.5216 -5.7764 141 0 0
9.8343 0.6784 -1.9765 191 0 0
-9.9657 -2.3216 2.2235 207 255 47
4.6343 -21.7216 -0.9765 72 255 182
8.6343 -30.5216 -4.1764 255 171 0
7.8343 -8.5216 -2.5764 255 25 0
48.2343 -19.3216 -2.9764 184 255 70
6.8343 -21.9216 -1.3764 200 255 54
1.8343 5.6784 1.8236 196 255 58
46.2343 -26.9216 -7.3765 255 34 0
9.6343 -6.7216 -2.9764 185 0 0
49.6343 -26.9216 -7.9764 166 0 0
27.2343 -23.3216 -2.9764 250 255 4
8.6343 -21.1216 -0.9765 182 255 72
-10.7657 -17.7216 0.4235 107 255 147
15.2343 -27.3216 -4.9764 255 85 0
13.6343 -31.3216 -2.9764 255 127 0
12.0343 -7.5216 -2.1764 178 0 0
44.2343 -32.3216 -7.7764 255 96 0
42.0343 -29.7216 -4.1764 255 237 0
57.6343 -23.5216 -5.3765 255 97 0
28.0343 -20.9216 -3.1764 255 90 0
10.8343 0.8784 -1.3764 177 0 0
48.0343 -20.3216 -5.7764 155 0 0
34.6343 -26.5216 -2.9764 180 255 74
9.0343 -5.5216 -2.5764 127 0 0
24.4343 -30.5216 -3.1764 255 117 0
11.2343 -34.1216 -2.3765 255 235 0
8.6343 -11.7216 -0.3765 194 255 60
33.2343 -32.9216 -4.9764 255 168 0
29.4343 -21.9216 -5.9764 127 0 0
-7.5657 -7.3216 0.4235 255 241 0
43.2343 -27.1216 -4.1764 255 228 0
2.6343 -4.7216 0.6236 255 248 0
32.4343 -34.3216 -4.5765 255 170 0
13.8343 -0.3216 0.8236 255 243 0
-2.9657 -24.3216 -4.1764 255 101 0
-5.3657 -4.7216 -1.7765 255 160 0
16.0343 -26.9216 -4.9764 255 31 0
-0.9657 -23.1216 -3.9764 255 199 0
-6.7657 -15.1216 -2.3765 255 86 0
6.2343 -25.5216 -4.1764 255 217 0
10.2343 -29.7216 -2.1764 177 255 77
-10.9657 -15.1216 -0.9765 255 233 0
42.6343 -17.7216 -3.1764 255 132 0
29.8343 -28.1216 -3.5764 157 255 97
21.8343 -20.9216 -1.7765 255 240 0
9.2343 1.4784 -0.9765 255 38 0
42.8343 -18.7216 -7.7764 127 0 0
3.2343 6.4784 0.6236 255 214 0
46.8343 -36.5216 -5.9764 189 255 65
44.8343 -33.5216 -7.9764 255 67 0
-0.1657 -12.9216 0.6236 66 255 188
-6.1657 -11.7216 -2.3765 255 204 0
8.2343 -16.5216 -4.7764 255 33 0
7.4343 -6.3216 -2.7765 188 0 0
24.4343 -28.1216 -2.9764 255 165 0
-7.7657 -15.5216 -1.5764 255 232 0
36.4343 -30.1216 -6.3765 255 56 0
46.4343 -35.3216 -6.9764 255 227 0
32.4343 -31.1216 -4.1764 255 183 0
52.6343 -22.5216 -8.3765 127 0 0
42.8343 -33.9216 -7.3765 255 97 0
5.0343 0.6784 -0.7764 255 10 0
1.6343 -27.7216 -2.7765 82 255 172
-5.1657 -15.7216 -2.3765 255 8 0
-5.9657 -11.5216 0.6236 81 255 173
21.6343 -16.9216 -3.9764 164 0 0
-5.3657 4.0784 -0.5765 255 110 0
50.4343 -24.1216 -7.1764 255 21 0
38.4343 -21.9216 -5.5765 147 0 0
-2.1657 -12.9216 -2.7765 255 238 0
11.8343 1.0784 -2.1764 132 0 0
17.4343 -29.1216 -4.9764 188 0 0
27.6343 -29.1216 -6.5765 127 0 0
39.2343 -23.7216 -6.5765 198 0 0
32.2343 -25.7216 -6.1764 242 0 0
-8.1657 -3.1216 2.2235 247 255 7
22.6343 -17.7216 -4.3765 127 0 0
37.8343 -24.5216 -4.9764 255 222 0
-1.1657 -0.5216 -1.1764 157 255 97
36.6343 -26.5216 -6.5765 255 24 0
29.0343 -25.7216 -2.9764 255 250 0
9.4343 -35.7216 -2.5764 235 255 19
1.2343 -3.7216 -1.9765 255 171 0
13.8343 -11.9216 -0.7764 255 7 0
6.4343 -39.9216 -5.9764 255 125 0
5.6343 -2.7216 -1.9765 136 0 0
4.6343 -16.5216 -0.5765 56 255 198
11.2343 6.2784 1.2235 184 255 70
25.0343 -32.7216 -3.7765 255 158 0
-3.9657 -26.7216 -2.3765 255 100 0
51.4343 -37.7216 -7.5765 255 164 0
-12.9657 -19.7216 -0.1764 255 145 0
48.0343 -21.1216 -3.7765 255 209 0
10.6343 1.0784 0.8236 230 255 24
-7.3657 -17.1216 0.4235 94 255 160
12.4343 -28.3216 -4.7764 255 85 0
12.6343 -19.5216 -4.5765 226 0 0
4.4343 -39.5216 -2.3765 255 223 0
-3.3657 -22.5216 -0.1764 159 255 95
20.8343 -17.1216 -3.5764 127 0 0
-2.1657 -1.9216 1.6236 220 255 34
41.2343 -29.1216 -6.7764 255 160 0
51.8343 -26.5216 -3.9764 255 112 0
26.8343 -19.1216 -3.5764 255 83 0
33.0343 -31.7216 -4.5765 255 176 0
36.8343 -25.7216 -3.3765 255 115 0
-6.3657 -16.5216 0.4235 68 255 186
45.0343 -16.1216 -2.9764 231 255 23
13.4343 -9.5216 -1.9765 251 0 0
46.0343 -28.9216 -4.3765 255 219 0
57.6343 -21.7216 -4.1764 255 145 0
43.2343 -11.5216 -3.9764 255 109 0
8.6343 -10.5216 -2.7765 127 0 0
5.0343 5.0784 -0.3765 255 76 0
9.8343 -22.7216 -0.5765 182 255 72
32.0343 -34.9216 -4.7764 255 152 0
30.6343 -29.3216 -3.7765 208 255 46
-0.3657 7.4784 0.4235 255 205 0
20.8343 -25.9216 -2.1764 255 129 0
11.6343 -10.5216 -2.7765 127 0 0
10.8343 -0.7216 -2.1764 127 0 0
5.6343 -26.5216 -1.7765 169 255 85
0.6343 6.0784 0.6236 255 223 0
13.6343 5.4784 1.0235 255 228 0
49.2343 -34.3216 -7.5765 255 147 0
9.2343 -1.1216 1.2235 198 255 56
47.6343 -35.9216 -5.3765 185 255 69
36.4343 -20.9216 -5.7764 245 0 0
-6.9657 -15.3216 -2.7765 255 62 0
13.6343 -9.7216 -2.7765 177 0 0
-18.3657 -5.1216 2.6235 136 255 118
7.6343 4.6784 -0.5765 255 133 0
11.8343 -26.7216 -5.1764 255 73 0
12.0343 -25.5216 -4.9764 228 0 0
11.2343 -5.3216 0.6236 255 197 0
1.6343 -25.3216 -1.3764 164 255 90
14.4343 -2.3216 -2.5764 238 0 0
36.6343 -28.3216 -6.7764 255 45 0
28.8343 -32.9216 -3.5764 255 239 0
43.2343 -21.1216 -6.3765 235 0 0
31.0343 -28.1216 -7.7764 255 18 0
9.2343 -3.3216 0.6236 255 214 0
8.6343 -24.9216 -0.9765 240 255 14
-2.5657 -1.7216 1.6236 255 233 0
0.2343 8.8784 1.0235 255 225 0
6.4343 -6.5216 0.8236 255 241 0
31.8343 -34.7216 -3.9764 244 255 10
53.4343 -23.3216 -6.1764 246 0 0
8.6343 -30.1216 -2.5764 255 245 0
31.6343 -34.7216 -5.3765 255 118 0
-4.9657 -15.5216 -2.7765 255 246 0
13.8343 -31.7216 -2.7765 255 179 0
15.6343 -26.5216 -2.1764 255 48 0
39.2343 -20.1216 -5.3765 226 0 0
-1.5657 4.4784 0.8236 221 255 33
-4.9657 3.4784 -0.3765 255 211 0
43.6343 -20.9216 -6.1764 188 0 0
6.8343 -40.3216 -3.5764 248 255 6
50.4343 -36.1216 -5.1764 255 180 0
31.4343 -29.5216 -3.7765 205 255 49
4.6343 -0.9216 1.0235 255 239 0
11.0343 -22.1216 -1.7765 255 147 0
11.0343 1.2784 -1.1764 255 19 0
43.0343 -20.3216 -2.9764 201 255 53
8.6343 -13.7216 -0.5765 182 255 72
17.4343 -15.1216 -4.1764 127 0 0
49.4343 -17.9216 -3.3765 255 177 0
24.0343 -29.3216 -5.7764 128 0 0
-7.7657 -11.3216 0.6236 84 255 170
3.0343 -2.9216 -2.1764 255 155 0
55.4343 -20.9216 -5.3765 255 135 0
-11.3657 -16.7216 0.6236 167 255 87
5.8343 -28.5216 -3.7765 155 255 99
19.4343 -24.3216 -5.3765 181 0 0
30.8343 -22.3216 -5.7764 184 0 0
29.4343 -33.1216 -3.7765 255 200 0
4.4343 -11.5216 0.2235 101 255 153
-4.7657 -2.5216 0.2235 255 42 0
3.8343 -19.7216 -0.5765 96 255 158
25.8343 -32.5216 -5.3765 255 7 0
-13.1657 -18.1216 -1.7765 255 84 0
7.6343 -25.9216 -4.7764 255 232 0
-10.7657 -14.3216 -1.7765 255 175 0
5.4343 -0.7216 1.4236 241 255 13
-2.3657 -23.5216 -0.3765 133 255 121
2.4343 -11.9216 0.0236 94 255 160
0.8343 0.4784 1.6236 255 251 0
51.4343 -19.7216 -3.9764 255 178 0
11.0343 -33.7216 -2.7765 255 215 0
47.2343 -13.1216 -4.7764 175 0 0
3.4343 5.2784 -0.9765 255 27 0
10.2343 -31.9216 -2.3765 195 255 59
26.8343 -30.5216 -2.9764 255 251 0
40.0343 -32.1216 -7.9764 239 0 0
15.8343 -27.7216 -2.5764 255 20 0
4.6343 2.0784 -0.9765 162 0 0
29.2343 -28.7216 -6.1764 151 0 0
50.2343 -31.5216 -7.3765 255 148 0
36.8343 -19.1216 -5.1764 229 0 0
19.4343 -19.3216 -1.7765 255 150 0
37.8343 -28.7216 -6.7764 255 89 0
36.0343 -24.7216 -5.1764 255 55 0
13.4343 0.2784 -1.3764 226 0 0
53.2343 -25.1216 -7.3765 219 0 0
-10.7657 -14.3216 -1.5764 255 178 0
-6.7657 1.0784 -0.1764 255 56 0
42.6343 -31.1216 -7.5765 255 148 0
45.0343 -23.9216 -6.7764 209 0 0
27.4343 -20.3216 -3.5764 255 127 0
5.0343 -14.1216 0.0236 42 255 212
4.0343 0.2784 -2.3765 255 40 0
46.6343 -16.7216 -2.9764 210 255 44
9.8343 3.2784 -1.1764 255 167 0
14.6343 -18.9216 -4.3765 214 0 0
46.4343 -18.9216 -5.1764 254 0 0
13.0343 -28.3216 -2.5764 255 123 0
48.6343 -32.5216 -4.5765 255 245 0
6.8343 6.0784 -0.7764 255 175 0
41.2343 -19.1216 -5.9764 194 0 0
-3.5657 -25.1216 -1.9765 255 91 0
10.4343 -19.7216 -0.7764 194 255 60
22.0343 -23.1216 -4.9764 131 0 0
11.0343 -16.3216 -0.5765 196 255 58
2.6343 1.4784 -1.1764 201 0 0
7.0343 5.0784 1.8236 185 255 69
9.2343 -25.3216 -4.9764 255 154 0
7.2343 -17.9216 -0.5765 69 255 185
14.6343 -1.7216 -2.5764 255 146 0
-8.9657 -21.3216 -3.3765 255 110 0
37.8343 -27.9216 -3.3765 207 255 47
2.6343 -1.9216 1.4236 210 255 44
0.6343 -5.3216 0.6236 216 255 38
1.4343 -27.5216 -3.5764 158 255 96
12.4343 -1.9216 -2.5764 255 163 0
19.0343 -16.9216 -4.7764 127 0 0
-1.3657 3.8784 -0.3765 255 167 0
14.2343 -21.1216 -4.3765 227 0 0
3.2343 -17.7216 -0.1764 24 255 230
20.0343 -16.7216 -4.5765 127 0 0
-4.3657 -0.3216 2.2235 253 255 1
50.6343 -24.9216 -7.3765 251 0 0
9.4343 7.2784 1.6236 227 255 27
13.4343 4.0784 0.8236 255 236 0
6.0343 4.0784 1.8236 243 255 11
8.8343 -25.9216 -4.3765 255 95 0
28.2343 7.2784 -1.5764 226 0 0
6.2343 -8.3216 -2.7765 127 0 0
1.8343 1.6784 2.0236 207 255 47
8.0343 -36.3216 -5.5765 255 56 0
45.0343 -27.7216 -6.9764 255 90 0
49.0343 -19.7216 -6.9764 166 0 0
-8.3657 -6.3216 1.6236 210 255 44
7.6343 0.6784 -1.7765 127 0 0
47.6343 -35.5216 -5.1764 197 255 57
3.6343 -7.5216 -2.3765 255 102 0
9.4343 0.4784 -1.9765 188 0 0
46.6343 -36.3216 -5.9764 185 255 69
-8.1657 -9.3216 -2.7765 255 172 0
0.6343 3.8784 -1.3764 255 248 0
46.0343 -24.1216 -6.5765 214 0 0
13.0343 -6.7216 -1.7765 255 132 0
-5.5657 -13.9216 1.0235 43 255 211
0.2343 -2.9216 -2.7765 222 255 32
-10.1657 -14.9216 -2.1764 255 37 0
11.2343 -8.3216 -1.5764 255 6 0
9.0343 -37.1216 -5.9764 255 26 0
-1.9657 -9.5216 -2.9764 255 33 0
18.6343 -15.7216 -1.5764 255 57 0
44.6343 -19.3216 -5.1764 255 42 0
-1.1657 -15.9216 -3.1764 255 23 0
11.8343 -25.7216 -5.1764 255 31 0
61.8343 -34.9216 -8.5764 255 5 0
16.6343 -16.5216 -0.9765 255 134 0
-0.1657 3.2784 -0.7764 246 255 8
4.8343 -22.9216 -1.9765 188 255 66
9.0343 -17.1216 -4.9764 255 11 0
47.4343 -29.7216 -4.3765 255 168 0
32.6343 -32.7216 -5.1764 255 140 0
8.8343 -6.1216 -2.9764 232 0 0
1.2343 -11.9216 0.4235 67 255 187
-0.5657 -26.1216 -5.3765 255 105 0
50.0343 -28.3216 -6.9764 255 89 0
1.6343 -10.1216 -2.3765 255 109 0
19.2343 -24.5216 -2.1764 255 137 0
-10.7657 -18.5216 0.2235 153 255 101
49.2343 -37.3216 -4.9764 244 255 10
46.8343 -26.5216 -7.1764 255 87 0
7.8343 -30.5216 -3.5764 239 255 15
30.2343 -31.1216 -6.3765 252 0 0
31.4343 -23.7216 -5.7764 158 0 0
7.8343 3.2784 1.4236 231 255 23
50.2343 -17.5216 -4.9764 255 59 0
7.6343 -4.3216 0.8236 255 195 0
51.2343 -27.5216 -4.5765 255 109 0
9.2343 -28.5216 -5.1764 255 233 0
47.6343 -35.7216 -8.1765 255 112 0
7.2343 -5.3216 0.2235 255 174 0
57.4343 -23.5216 -4.1764 255 248 0
10.4343 -27.3216 -4.7764 255 227 0
54.0343 -39.3216 -7.7764 255 237 0
41.4343 -26.9216 -3.5764 255 117 0
-4.1657 -13.5216 -2.1764 253 0 0
-2.5657 -24.5216 -4.7764 255 129 0
4.6343 2.4784 1.6236 171 255 83
7.2343 -34.5216 -3.7765 237 255 17
7.4343 -16.3216 -1.1764 220 255 34
55.0343 -27.9216 -7.5765 155 0 0
-2.3657 -24.9216 -1.3764 255 71 0
20.2343 -30.3216 -2.5764 255 112 0
20.2343 -30.9216 -4.1764 255 68 0
-2.7657 -17.9216 -0.1764 27 255 227
7.8343 14.4784 2.4236 255 215 0
16.0343 -17.7216 -1.1764 255 89 0
-10.1657 -18.1216 -2.7765 255 88 0
-3.3657 -24.1216 -3.9764 255 130 0
54.8343 -22.1216 -7.3765 178 0 0
-2.7657 -34.5216 -1.7765 255 248 0
8.8343 0.8784 -1.9765 135 0 0
-0.7657 -3.5216 1.0235 255 237 0
3.4343 -3.5216 0.6236 255 220 0
46.0343 -17.7216 -3.1764 255 224 0
19.4343 3.6784 -1.3764 255 64 0
28.0343 -21.3216 -5.5765 183 0 0
-11.3657 8.4784 3.6235 255 194 0
3.2343 -27.9216 -4.9764 255 198 0
-28.7657 -11.7216 0.6236 255 127 0
-6.9657 -7.1216 -0.1764 255 99 0
18.2343 -15.5216 -3.7765 127 0 0
-5.5657 -4.7216 -1.3764 255 82 0
33.0343 -23.5216 -5.5765 255 39 0
6.8343 3.2784 -1.1764 255 131 0
-4.3657 3.8784 -0.3765 255 154 0
11.4343 -22.5216 -4.1764 230 0 0
-5.7657 -11.3216 1.2235 59 255 195
50.6343 -37.5216 -5.7764 255 246 0
1.6343 -6.5216 -1.9765 255 109 0
52.8343 -19.7216 -6.7764 127 0 0
22.6343 -24.1216 -7.3765 174 0 0
9.4343 -15.1216 -3.3765 255 96 0
12.0343 -12.9216 -3.7765 166 0 0
50.0343 -18.1216 -3.1764 219 255 35
3.8343 -17.3216 -3.3765 254 0 0
45.8343 -33.5216 -4.7764 159 255 95
9.4343 3.6784 -0.1764 255 210 0
13.2343 -2.9216 0.4235 243 255 11
8.4343 7.0784 1.4236 254 255 0
31.4343 -29.1216 -3.1764 165 255 89
2.6343 1.2784 -1.1764 227 0 0
-8.3657 -21.9216 -3.3765 255 85 0
10.4343 -35.5216 -3.7765 255 199 0
55.2343 -20.9216 -5.7764 255 88 0
43.0343 -14.7216 -2.3765 220 255 34
0.6343 -26.1216 -2.3765 255 80 0
-1.9657 -16.5216 -2.5764 255 222 0
42.4343 -24.5216 -3.5764 255 210 0
4.0343 -0.7216 1.4236 241 255 13
47.2343 -16.9216 -4.9764 255 4 0
-4.7657 -22.5216 -2.9764 255 83 0
21.2343 -13.7216 -3.9764 130 0 0
11.4343 -18.1216 -4.3765 184 0 0
-2.1657 -7.7216 -2.1764 255 89 0
-8.1657 -38.5216 -1.7765 255 163 0
1.2343 -14.5216 -2.7765 255 188 0
43.4343 -31.3216 -3.9764 210 255 44
29.0343 -22.5216 -5.9764 209 0 0
9.4343 -31.3216 -3.1764 255 219 0
-11.9657 -17.5216 -2.5764 255 112 0
-6.1657 -19.5216 0.4235 142 255 112
-0.3657 -5.3216 -2.5764 255 192 0
41.2343 -29.9216 -7.3765 255 134 0
5.8343 -12.5216 -4.1764 255 16 0
48.6343 -23.5216 -6.5765 207 0 0
44.4343 -20.3216 -5.9764 183 0 0
10.6343 3.2784 -0.3765 255 83 0
-13.3657 -19.3216 -0.1764 255 184 0
29.0343 -33.9216 -3.7765 255 212 0
23.2343 -20.7216 -5.3765 201 0 0
13.6343 -29.3216 -2.1764 255 113 0
2.6343 -26.3216 -3.7765 255 252 0
30.8343 -35.3216 -4.9764 255 100 0
0.6343 -22.5216 -3.5764 242 0 0
26.4343 -21.9216 -5.1764 127 0 0
38.0343 -23.5216 -4.7764 255 114 0
43.2343 -15.3216 -2.5764 180 255 74
42.4343 -15.7216 -5.5765 175 0 0
-4.5657 -23.7216 -2.9764 255 69 0
44.4343 -34.5216 -6.9764 255 133 0
3.2343 -27.1216 -2.5764 76 255 178
47.0343 -16.5216 -2.9764 255 254 0
6.0343 -24.5216 -1.1764 255 254 0
5.4343 -20.9216 -3.5764 255 205 0
51.0343 -22.7216 -7.9764 127 0 0
48.0343 -21.5216 -6.7764 249 0 0
49.0343 -30.7216 -7.5765 255 53 0
10.6343 -31.9216 -4.9764 255 83 0
25.2343 -30.5216 -6.5765 173 0 0
45.4343 -19.9216 -3.5764 255 182 0
13.0343 -18.1216 -1.1764 255 150 0
44.6343 -34.7216 -7.7764 255 131 0
16.6343 -4.1216 -1.7765 255 177 0
-10.1657 -2.1216 2.2235 185 255 69
46.2343 -35.5216 -4.9764 168 255 86
41.4343 -22.3216 -5.5765 255 5 0
38.4343 -21.7216 -6.5765 127 0 0
51.2343 -21.7216 -3.5764 255 229 0
53.2343 -21.9216 -6.7764 138 0 0
18.8343 -29.5216 -4.7764 244 0 0
41.8343 -23.7216 -3.1764 255 180 0
4.2343 5.0784 0.2235 255 208 0
11.2343 -2.7216 0.2235 247 255 7
-10.3657 -16.7216 1.0235 106 255 148
-8.1657 -5.7216 1.4236 206 255 48
0.6343 -18.5216 -0.3765 35 255 219
17.6343 -15.3216 -1.3764 255 31 0
50.0343 -35.7216 -4.9764 245 255 9
-7.7657 -8.9216 -1.1764 255 52 0
3.6343 -2.9216 -2.1764 255 13 0
40.4343 -28.1216 -3.9764 195 255 59
10.0343 -5.7216 -2.9764 247 0 0
-0.3657 -7.3216 0.8236 238 255 16
54.6343 -20.1216 -6.1764 189 0 0
-12.1657 -18.9216 -1.9765 255 30 0
9.0343 -36.7216 -3.1764 255 216 0
-1.3657 -19.3216 -3.3765 255 51 0
26.8343 -33.1216 -6.5765 255 8 0
-8.3657 -11.9216 0.6236 216 255 38
2.2343 -3.3216 0.8236 255 253 0
41.4343 -26.9216 -3.7765 255 213 0
55.4343 -26.1216 -6.7764 255 36 0
35.4343 -26.9216 -3.5764 255 247 0
50.8343 -19.9216 -3.7765 255 200 0
-9.1657 -11.5216 0.4235 159 255 95
62.8343 -24.1216 -6.7764 255 69 0
-2.5657 1.4784 1.0235 255 243 0
-8.1657 6.4784 0.2235 255 37 0
46.6343 -16.3216 -3.5764 255 151 0
30.4343 -24.1216 -5.9764 172 0 0
22.0343 -18.3216 -5.1764 127 0 0
9.8343 -33.7216 -2.7765 255 249 0
6.6343 -34.3216 -5.9764 255 131 0
15.4343 1.8784 1.0235 255 204 0
40.4343 -25.1216 -6.5765 255 106 0
-3.7657 -11.1216 0.4235 79 255 175
25.4343 -27.3216 -3.1764 255 193 0
-2.7657 -21.7216 -0.3765 132 255 122
1.4343 -6.3216 -2.1764 255 55 0
12.4343 -24.1216 -5.7764 255 73 0
-9.3657 -9.9216 -1.1764 255 33 0
-9.9657 -14.3216 -1.1764 255 171 0
35.0343 -29.9216 -6.5765 212 0 0
16.4343 1.8784 -2.1764 255 96 0
7.0343 -9.3216 0.4235 235 255 19
-4.1657 -24.5216 -1.1764 255 159 0
-4.7657 3.6784 -0.1764 255 160 0
23.0343 -25.7216 -5.5765 182 0 0
53.8343 -20.9216 -4.1764 255 168 0
-11.7657 -25.9216 -0.1764 220 255 34
24.6343 -21.5216 -2.3765 255 185 0
-3.5657 -18.5216 0.0236 70 255 184
8.4343 -2.9216 0.6236 255 221 0
4.4343 -10.7216 -3.9764 255 65 0
13.0343 -3.3216 -2.7765 127 0 0
-4.5657 -11.5216 0.6236 97 255 157
22.2343 -21.9216 -5.1764 172 0 0
30.0343 -18.3216 -4.3765 228 0 0
14.2343 -8.5216 -2.7765 235 0 0
55.6343 -24.1216 -6.9764 229 0 0
2.8343 -24.1216 -0.7764 159 255 95
-8.1657 -19.3216 -2.9764 255 130 0
19.4343 -16.1216 -3.1764 127 0 0
2.8343 -17.5216 -0.1764 22 255 232
-2.9657 -10.1216 -1.9765 255 173 0
0.2343 4.4784 -0.5765 255 230 0
11.2343 -28.1216 -2.1764 255 88 0
50.6343 -27.5216 -6.3765 255 63 0
43.8343 -11.9216 -4.5765 145 0 0
7.2343 -12.9216 -3.1764 255 55 0
18.8343 -16.1216 -3.1764 127 0 0
12.2343 -5.5216 -3.5764 239 0 0
11.2343 -6.9216 -1.9765 154 0 0
49.8343 -17.7216 -3.9764 255 111 0
-3.3657 -4.1216 -1.5764 255 208 0
58.8343 -20.1216 -6.3765 194 0 0
17.0343 -29.1216 -5.1764 192 0 0
15.0343 -21.7216 -4.3765 147 0 0
16.4343 -20.3216 -4.5765 179 0 0
49.2343 -23.1216 -10.1764 169 0 0
11.8343 -33.7216 -4.9764 255 82 0
8.6343 -9.5216 -3.1764 218 0 0
53.6343 -30.7216 -7.3765 255 2 0
8.2343 -0.7216 -2.3765 238 0 0
40.4343 -24.9216 -5.7764 255 34 0
1.4343 -18.9216 -5.1764 255 57 0
-6.9657 -17.3216 -3.7765 255 170 0
-10.9657 -13.1216 -0.9765 206 255 48
18.0343 -28.7216 -3.3765 255 42 0
-2.9657 -6.1216 1.2235 192 255 62
48.2343 -28.5216 -7.1764 232 0 0
31.6343 -23.1216 -2.7765 255 94 0
13.6343 -31.9216 -4.3765 255 103 0
1.2343 3.6784 1.6236 229 255 25
-2.5657 2.0784 1.6236 255 231 0
61.0343 -23.5216 -7.3765 199 0 0
52.6343 -30.9216 -7.7764 230 0 0
-8.9657 -11.9216 -2.1764 255 84 0
23.8343 -19.5216 -1.9765 255 134 0
5.2343 3.0784 -1.5764 134 0 0
46.8343 -30.9216 -4.3765 255 242 0
47.2343 -36.1216 -6.5765 216 255 38
16.6343 -19.3216 -1.7765 255 125 0
48.2343 -20.9216 -6.3765 186 0 0
42.0343 -29.7216 -7.1764 255 178 0
2.4343 -11.5216 -2.9764 255 125 0
7.4343 5.6784 2.0236 167 255 87
46.2343 -17.3216 -3.1764 255 193 0
50.8343 -19.1216 -6.3765 127 0 0
-1.5657 -13.3216 0.0236 90 255 164
5.8343 4.0784 0.2235 255 229 0
8.2343 -37.9216 -6.5765 255 28 0
8.8343 -5.3216 -2.7765 127 0 0
33.6343 -24.9216 -6.3765 225 0 0
18.6343 -2.3216 -0.7764 255 221 0
48.0343 -30.5216 -7.3765 255 90 0
12.4343 -7.3216 0.0236 255 78 0
-8.3657 -11.5216 1.0235 99 255 155
-3.1657 1.4784 -0.5765 255 170 0
48.2343 -15.1216 -4.3765 255 75 0
46.8343 -25.7216 -6.9764 237 0 0
25.0343 -33.5216 -4.5765 255 100 0
1.2343 1.2784 -2.1764 255 183 0
-2.5657 -0.9216 1.4236 255 251 0
46.8343 -23.3216 -6.9764 220 0 0
30.2343 -34.3216 -5.7764 255 43 0
-7.9657 -10.1216 -1.7765 255 52 0
40.8343 -26.5216 -5.5765 255 96 0
50.8343 -34.1216 -4.9764 255 184 0
31.4343 -29.3216 -3.1764 158 255 96
13.6343 -3.7216 -2.3765 200 0 0
39.4343 -20.3216 -4.1764 255 187 0
53.2343 -23.5216 -8.9764 127 0 0
2.0343 5.8784 1.2235 255 226 0
-3.1657 1.8784 -1.1764 255 241 0
13.2343 -22.9216 -4.5765 255 44 0
13.4343 -26.5216 -5.1764 255 8 0
-9.1657 -18.1216 0.8236 147 255 107
7.0343 -16.9216 -2.7765 255 43 0
46.4343 -19.9216 -6.1764 137 0 0
11.8343 -28.3216 -4.9764 255 118 0
-8.7657 -8.9216 0.2235 255 232 0
24.0343 -19.5216 -4.7764 127 0 0
13.0343 -30.9216 -2.5764 255 164 0
24.6343 -29.3216 -3.1764 255 168 0
48.2343 -22.5216 -6.9764 255 3 0
47.8343 -24.1216 -3.9764 255 167 0
9.8343 -11.3216 -3.9764 160 0 0
9.8343 -13.7216 -3.5764 255 74 0
37.8343 -25.9216 -6.1764 255 0 0
11.6343 -24.9216 -1.9765 255 133 0
44.2343 -30.7216 -7.1764 255 183 0
-5.1657 -5.1216 -1.5764 255 161 0
7.2343 -23.1216 -1.5764 154 255 100
39.6343 -23.5216 -6.5765 127 0 0
7.0343 -1.1216 -1.9765 143 0 0
20.8343 -23.9216 -2.1764 255 238 0
12.0343 -21.1216 -4.5765 202 0 0
-7.9657 -9.5216 0.0236 213 255 41
48.0343 -31.5216 -4.9764 255 232 0
49.4343 -24.5216 -4.3765 255 135 0
13.6343 -7.7216 -2.5764 255 7 0
1.8343 4.0784 1.6236 185 255 69
16.4343 -21.7216 -1.7765 255 139 0
-1.3657 -6.3216 -2.1764 255 88 0
45.6343 -18.9216 -2.9764 211 255 43
30.8343 -31.9216 -3.5764 243 255 11
10.0343 2.0784 -0.9765 255 74 0
38.8343 -30.3216 -4.1764 155 255 99
-8.5657 -12.5216 -1.3764 255 98 0
43.4343 -33.7216 -7.1764 255 74 0
12.8343 -12.7216 -2.3765 127 0 0
39.0343 -31.9216 -4.7764 228 255 26
9.2343 -22.7216 -4.7764 255 168 0
10.8343 -28.9216 -4.7764 255 189 0
42.8343 -34.1216 -6.5765 255 175 0
46.8343 -16.7216 -4.7764 255 23 0
-1.5657 -4.7216 -1.9765 255 107 0
10.4343 2.6784 -0.3765 255 89 0
29.6343 -27.3216 -3.1764 202 255 52
11.0343 -31.5216 -4.9764 255 84 0
49.0343 -26.1216 -6.1764 219 0 0
11.4343 -7.1216 -2.3765 190 0 0
-7.7657 -21.3216 -3.1764 255 89 0
10.6343 -28.5216 -1.9765 255 219 0
16.8343 -22.3216 -2.1764 255 149 0
43.4343 -22.5216 -6.3765 255 17 0
15.8343 -28.3216 -5.5765 255 17 0
39.8343 -30.7216 -4.1764 171 255 83
41.2343 -20.9216 -3.1764 255 245 0
-0.7657 -32.1216 -4.5765 255 197 0
17.0343 -15.3216 -1.3764 230 0 0
13.6343 -9.7216 -1.5764 255 56 0
-4.3657 -3.9216 -1.7765 255 197 0
39.0343 -21.5216 -6.3765 128 0 0
7.2343 2.0784 0.8236 165 255 89
17.2343 -19.7216 -4.5765 147 0 0
1.8343 -26.3216 -4.7764 255 98 0
44.6343 -34.3216 -7.3765 255 38 0
4.8343 6.0784 -0.7764 255 37 0
7.2343 4.2784 0.2235 255 208 0
-0.5657 -24.3216 -0.7764 180 255 74
44.2343 -34.7216 -8.1765 255 87 0
6.8343 -27.7216 -4.3765 255 170 0
46.6343 -33.7216 -4.9764 185 255 69
32.0343 -22.9216 -3.9764 255 16 0
18.8343 -28.7216 -2.5764 255 86 0
51.2343 -35.5216 -4.9764 255 177 0
5.4343 -27.9216 -1.9765 175 255 79
-14.3657 -25.3216 -2.9764 255 145 0
38.6343 -29.7216 -7.9764 255 3 0
28.2343 -21.1216 -4.1764 255 12 0
13.6343 -31.9216 -4.7764 255 15 0
8.0343 -37.9216 -5.1764 255 94 0
-2.1657 7.4784 1.2235 255 239 0
46.8343 -18.9216 -2.9764 243 255 11
-5.7657 -19.9216 -0.3765 172 255 82
52.2343 -27.5216 -7.3765 127 0 0
-14.3657 -26.1216 -3.3765 255 137 0
-2.3657 1.2784 1.6236 255 228 0
-1.9657 -25.1216 -4.1764 255 204 0
20.8343 -17.3216 -4.9764 127 0 0
45.2343 -16.3216 -5.7764 143 0 0
-0.7657 -23.3216 -0.3765 93 255 161
51.0343 -23.5216 -6.3765 141 0 0
28.4343 -30.9216 -6.5765 184 0 0
48.6343 -16.7216 -6.3765 127 0 0
-5.3657 -11.9216 0.4235 103 255 151
6.8343 -15.9216 -3.9764 134 0 0
50.4343 -18.1216 -3.5764 255 141 0
23.2343 -25.7216 -5.7764 239 0 0
12.2343 -17.7216 -0.9765 255 174 0
13.6343 -23.5216 -1.7765 255 90 0
41.6343 -32.1216 -7.5765 255 111 0
10.2343 -1.1216 1.0235 153 255 101
6.8343 -40.1216 -4.5765 255 199 0
11.6343 0.4784 0.6236 238 255 16
21.0343 -28.1216 -5.7764 229 0 0
15.6343 0.0784 -0.7764 255 217 0
11.8343 -29.3216 -1.9765 255 158 0
-0.3657 -32.1216 -3.7765 215 255 39
-3.9657 0.4784 0.8236 255 205 0
-2.3657 -4.7216 -1.3764 255 201 0
8.4343 -35.7216 -5.5765 255 76 0
5.0343 -19.5216 -1.1764 15 255 239
-8.9657 -10.1216 1.2235 125 255 129
42.4343 -20.5216 -6.1764 158 0 0
29.8343 -34.7216 -4.9764 255 122 0
46.6343 -19.7216 -2.9764 197 255 57
-2.9657 -0.7216 1.4236 255 247 0
20.2343 -16.3216 -4.5765 127 0 0
15.0343 -22.7216 -4.7764 184 0 0
-11.5657 -17.3216 0.6236 128 255 126
18.2343 -12.5216 -1.1764 255 69 0
51.6343 -29.1216 -7.7764 198 0 0
1.4343 -16.7216 -0.5765 94 255 160
9.4343 -30.3216 -5.1764 255 134 0
47.2343 -20.5216 -3.7765 255 150 0
8.4343 -31.1216 -5.1764 255 69 0
12.4343 -19.5216 -3.9764 169 0 0
-2.3657 -16.1216 -0.1764 59 255 195
13.8343 -13.7216 -1.3764 217 0 0
43.4343 -34.9216 -4.5765 146 255 108
26.2343 -16.3216 -4.7764 149 0 0
7.2343 -14.1216 -0.5765 123 255 131
7.2343 -0.5216 1.0235 203 255 51
-0.3657 -9.9216 0.4235 121 255 133
53.4343 -22.9216 -6.3765 253 0 0
30.6343 -24.9216 -5.9764 227 0 0
10.0343 3.6784 -0.7764 255 77 0
25.2343 -16.7216 -4.5765 127 0 0
8.0343 4.4784 -0.7764 255 132 0
9.2343 -11.7216 -2.3765 255 67 0
32.2343 -23.1216 -5.7764 226 0 0
54.4343 -20.3216 -7.3765 127 0 0
6.0343 -7.9216 0.0236 255 245 0
25.6343 -29.7216 -3.1764 255 196 0
31.2343 -30.9216 -10.9764 255 131 0
10.8343 -8.7216 -2.1764 127 0 0
48.6343 -15.7216 -5.1764 251 0 0
37.2343 -27.7216 -3.5764 199 255 55
5.2343 -39.3216 -2.3765 255 243 0
48.0343 -16.7216 -3.3765 255 136 0
53.2343 -19.1216 -4.3765 255 68 0
-2.3657 -14.9216 0.4235 51 255 203
48.6343 -30.9216 -7.7764 255 101 0
3.4343 -0.3216 1.0235 255 239 0
1.6343 -26.1216 -2.9764 178 255 76
11.6343 0.8784 -0.5765 255 206 0
31.6343 -15.5216 -4.7764 255 64 0
-10.5657 -21.3216 0.2235 255 173 0
-3.1657 -18.5216 -2.9764 255 172 0
29.0343 -22.1216 -5.5765 127 0 0
52.2343 -21.5216 -4.1764 255 194 0
-2.3657 2.4784 -0.3765 255 174 0
33.6343 -30.9216 -5.7764 255 14 0
22.6343 -31.5216 -6.5765 132 0 0
52.4343 -20.7216 -6.9764 127 0 0
11.4343 -0.3216 0.4235 181 255 73
-3.1657 0.8784 2.2235 218 255 36
-9.3657 -21.5216 -1.3764 255 137 0
14.8343 -20.3216 -4.3765 190 0 0
53.6343 -25.1216 -3.9764 255 146 0
6.6343 1.2784 -1.1764 255 71 0
45.0343 -9.3216 -3.9764 255 43 0
11.6343 8.0784 1.6236 205 255 49
-0.3657 -21.9216 -5.3765 255 45 0
10.2343 -10.1216 -0.7764 255 97 0
46.8343 -33.3216 -7.9764 255 159 0
44.8343 -23.3216 -3.9764 255 191 0
1.8343 1.6784 -1.3764 254 0 0
48.8343 -37.1216 -6.1764 243 255 11
-5.9657 -5.3216 -1.5764 255 150 0
38.6343 -27.5216 -3.7765 255 228 0
12.4343 -5.9216 -0.1764 255 194 0
-16.7657 -51.5216 -4.7764 255 44 0
20.2343 -27.9216 -2.3765 255 108 0
56.8343 -21.7216 -3.5764 231 255 23
51.4343 -34.5216 -5.1764 255 104 0
6.0343 -18.3216 -3.3765 255 141 0
5.8343 5.4784 -0.5765 255 59 0
51.4343 -23.5216 -6.1764 189 0 0
-9.5657 -11.9216 -0.5765 247 255 7
48.8343 -17.7216 -5.9764 127 0 0
1.2343 -9.3216 0.2235 201 255 53
4.4343 -13.1216 0.0236 93 255 161
7.6343 -25.7216 -4.3765 255 222 0
42.4343 -26.7216 -3.7765 255 247 0
-2.1657 -25.5216 -2.7765 255 13 0
8.8343 -18.9216 -4.3765 255 27 0
27.8343 7.6784 -0.9765 255 108 0
9.2343 -17.9216 -0.5765 188 255 66
5.8343 8.6784 -0.9765 255 58 0
9.6343 -36.5216 -5.5765 255 129 0
54.6343 -19.1216 -3.9764 255 163 0
54.0343 -20.1216 -6.7764 166 0 0
-2.9657 2.6784 -0.3765 255 221 0
9.4343 -19.3216 -0.7764 255 237 0
15.0343 -0.5216 -0.5765 242 255 12
50.4343 -18.1216 -5.5765 168 0 0
-9.7657 -21.7216 1.2235 248 255 6
-2.7657 -9.9216 -1.9765 255 14 0
18.4343 -27.5216 -2.3765 255 98 0
37.8343 -18.9216 -4.7764 255 57 0
-0.1657 -26.3216 -2.9764 255 97 0
8.8343 4.2784 0.0236 255 251 0
46.6343 -27.5216 -4.1764 255 239 0
48.0343 -19.1216 -3.5764 255 237 0
24.6343 -26.7216 -2.9764 255 195 0
36.6343 -27.9216 -6.7764 255 92 0
47.8343 -16.3216 -6.3765 127 0 0
51.2343 -15.5216 -4.9764 255 14 0
49.4343 -32.9216 -4.9764 255 179 0
-2.3657 -14.5216 -2.3765 255 52 0
9.8343 -23.5216 -4.7764 255 144 0
39.2343 -30.9216 -4.7764 221 255 33
14.2343 -11.3216 -2.1764 146 0 0
32.0343 -22.1216 -5.5765 242 0 0
54.6343 -22.7216 -6.7764 177 0 0
38.8343 -21.3216 -4.3765 255 182 0
18.6343 -29.1216 -5.7764 188 0 0
7.0343 -37.5216 -2.7765 235 255 19
32.0343 -30.3216 -3.9764 255 221 0
2.0343 -4.1216 1.4236 217 255 37
12.8343 -27.7216 -4.9764 255 55 0
29.8343 -28.7216 -6.1764 177 0 0
-4.5657 -18.5216 -2.5764 255 174 0
45.4343 -25.1216 -6.7764 240 0 0
-1.1657 -19.1216 -3.3765 255 20 0
45.2343 -28.1216 -7.5765 204 0 0
-2.5657 -5.7216 -1.9765 255 119 0
4.2343 -2.5216 1.4236 255 226 0
42.4343 -29.7216 -3.9764 255 239 0
10.6343 5.2784 1.4236 255 216 0
0.8343 -20.9216 -3.9764 255 24 0
20.6343 -17.9216 -4.9764 127 0 0
49.6343 -27.9216 -7.5765 255 13 0
7.4343 -30.1216 -1.7765 192 255 62
1.8343 -10.5216 0.0236 169 255 85
8.6343 -27.9216 -4.9764 255 174 0
51.0343 -23.5216 -4.1764 255 144 0
38.0343 -24.3216 -6.3765 255 115 0
45.2343 -19.1216 -3.5764 255 228 0
38.2343 -22.9216 -4.1764 255 118 0
4.6343 -7.5216 0.2235 218 255 36
6.0343 -38.7216 -5.3765 255 152 0
4.6343 -9.1216 -2.7765 255 164 0
55.2343 -20.5216 -4.3765 255 120 0
-16.3657 -25.5216 -1.3764 255 175 0
40.2343 -23.3216 -3.1764 255 178 0
2.6343 -27.7216 -4.1764 255 244 0
24.2343 -24.9216 -2.5764 236 255 18
41.6343 -32.9216 -5.1764 221 255 33
0.2343 -13.5216 -2.5764 255 250 0
13.0343 0.0784 -3.1764 255 15 0
7.8343 -34.9216 -5.5765 255 47 0
48.0343 -19.5216 -3.1764 206 255 48
5.8343 -6.9216 -4.1764 255 34 0
-8.1657 -22.1216 -1.1764 255 129 0
9.8343 3.4784 -0.1764 255 166 0
-1.9657 -13.1216 -2.9764 255 187 0
5.0343 3.6784 0.2235 255 206 0
54.4343 -19.7216 -4.3765 255 123 0
1.6343 -17.9216 -4.7764 255 99 0
0.6343 -3.9216 -3.3765 199 255 55
-10.9657 -17.1216 -1.9765 255 112 0
36.0343 -30.7216 -4.3765 251 255 3
40.8343 -16.9216 -4.9764 140 0 0
44.6343 -15.7216 -5.9764 156 0 0
23.0343 -21.7216 -4.9764 127 0 0
-1.5657 5.4784 1.8236 212 255 42
5.0343 4.6784 -0.1764 255 115 0
-3.5657 -35.9216 -1.5764 255 242 0
13.6343 -12.9216 -2.3765 127 0 0
37.2343 -31.3216 -6.3765 255 17 0
18.4343 -23.5216 -1.9765 255 183 0
8.0343 -17.1216 -3.5764 255 166 0
1.8343 -3.7216 -2.3765 255 126 0
39.8343 -17.7216 -4.7764 255 17 0
4.4343 -16.9216 -0.7764 64 255 190
45.2343 -27.9216 -6.7764 255 45 0
9.8343 -35.9216 -2.3765 213 255 41
8.0343 -34.7216 -5.1764 255 60 0
-6.7657 -19.3216 -2.7765 255 52 0
21.4343 -27.1216 -2.3765 255 146 0
1.0343 9.6784 1.0235 255 220 0
5.6343 -18.3216 -0.5765 58 255 196
50.4343 -35.9216 -7.3765 255 190 0
26.4343 -32.9216 -3.9764 255 204 0
-2.5657 -27.7216 -3.3765 255 59 0
51.8343 -25.3216 -3.7765 255 97 0
5.6343 0.0784 1.4236 255 245 0
3.6343 -3.3216 0.6236 255 237 0
41.4343 -14.9216 -4.7764 171 0 0
1.0343 -19.9216 -3.5764 255 87 0
-9.1657 -15.1216 1.0235 20 255 234
18.0343 -23.9216 -5.3765 187 0 0
19.2343 -21.5216 -4.9764 199 0 0
27.2343 -33.3216 -3.7765 255 166 0
51.8343 -14.7216 -5.5765 131 0 0
32.8343 -13.1216 -4.1764 171 0 0
-5.9657 -12.3216 -2.3765 255 153 0
0.6343 -8.5216 -2.1764 255 109 0
8.8343 -30.9216 -1.7765 213 255 41
46.0343 -18.3216 -5.1764 240 0 0
-5.3657 -3.9216 -0.3765 255 54 0
7.0343 -17.1216 -1.9765 255 252 0
8.8343 -12.9216 -3.5764 255 66 0
2.4343 7.2784 -0.1764 255 212 0
2.8343 4.6784 1.4236 255 253 0
12.0343 -5.1216 -1.9765 255 77 0
1.4343 -1.5216 -1.3764 255 249 0
48.2343 -35.7216 -5.3765 199 255 55
46.8343 -16.5216 -3.1764 255 165 0
10.2343 -1.1216 -2.3765 255 86 0
7.8343 -26.7216 -4.7764 217 255 37
6.4343 -14.3216 -3.7765 127 0 0
26.0343 -20.5216 -5.1764 130 0 0
18.2343 -17.3216 -1.3764 255 104 0
4.6343 5.0784 0.6236 255 227 0
24.4343 -32.9216 -6.5765 175 0 0
-1.3657 -15.3216 -2.5764 255 229 0
17.0343 -1.5216 -2.7765 255 41 0
32.2343 -25.9216 -3.3765 208 255 46
1.8343 11.6784 1.4236 249 255 5
14.4343 -23.3216 -1.9765 255 29 0
7.4343 -35.5216 -5.1764 255 141 0
32.6343 -33.7216 -4.9764 255 165 0
20.2343 -21.3216 -1.9765 255 189 0
47.8343 -33.1216 -4.5765 193 255 61
8.6343 -26.1216 -4.7764 255 146 0
17.6343 -25.7216 -5.3765 208 0 0
50.6343 -28.5216 -9.1765 166 0 0
30.0343 -26.3216 -3.1764 128 255 126
50.8343 -35.5216 -8.5764 255 179 0
63.2343 -31.3216 -8.1765 255 59 0
46.6343 -30.7216 -7.1764 255 165 0
49.8343 -25.5216 -3.7765 255 184 0
5.2343 -22.3216 -0.9765 133 255 121
35.8343 -27.9216 -3.5764 177 255 77
43.2343 -23.3216 -6.1764 189 0 0
27.4343 -23.3216 -5.5765 255 2 0
45.0343 -26.1216 -6.7764 255 67 0
16.6343 2.2784 -0.7764 255 142 0
41.4343 -31.5216 -3.9764 191 255 63
9.4343 -24.3216 -4.5765 255 160 0
35.8343 -28.3216 -3.7765 223 255 31
27.4343 -20.5216 -3.9764 255 149 0
1.6343 -27.5216 -3.1764 92 255 162
5.0343 0.4784 -0.7764 255 47 0
42.2343 -23.7216 -3.7765 255 156 0
54.6343 -25.9216 -4.3765 255 112 0
4.4343 -8.7216 -2.5764 255 126 0
-3.9657 -0.5216 -1.3764 255 100 0
21.4343 -31.3216 -2.9764 255 177 0
53.8343 -19.9216 -6.1764 133 0 0
-9.9657 -20.3216 -2.7765 255 110 0
5.4343 -11.1216 -2.5764 255 206 0
11.0343 -24.9216 -1.7765 255 54 0
56.4343 -20.5216 -5.3765 255 160 0
5.0343 -2.1216 0.8236 255 200 0
9.2343 -23.9216 -4.5765 255 87 0
52.2343 -33.9216 -6.7764 255 75 0
41.6343 -33.9216 -4.3765 135 255 119
10.2343 -17.1216 -4.3765 253 0 0
2.4343 2.6784 2.0236 214 255 40
28.6343 -23.7216 -5.7764 165 0 0
36.8343 -19.7216 -5.3765 172 0 0
10.6343 -8.1216 -3.5764 127 0 0
1.2343 5.2784 -1.1764 255 191 0
45.6343 -20.5216 -6.3765 213 0 0
-3.1657 -2.5216 -1.3764 242 255 12
4.4343 -25.3216 -4.1764 242 255 12
24.0343 -32.7216 -6.3765 150 0 0
53.0343 -31.5216 -5.5765 255 114 0
50.0343 -36.3216 -7.5765 255 165 0
7.2343 -14.5216 -3.1764 255 151 0
1.4343 -7.9216 0.4235 146 255 108
30.4343 -20.9216 -4.1764 255 61 0
53.0343 -16.9216 -5.9764 255 4 0
6.2343 -10.5216 -2.9764 255 104 0
19.8343 -30.3216 -5.7764 132 0 0
16.6343 -14.7216 -4.7764 127 0 0
57.6343 -22.9216 -5.5765 255 70 0
51.2343 -27.3216 -4.3765 255 69 0
13.6343 -21.1216 -1.5764 255 102 0
